ply
format ascii 1.0
comment Created by python sfm
element vertex 1595
property float x
property float y
property float z
end_header
22.699570 -10.969597 54.296875
22.567490 -18.974770 55.548584
22.770630 -11.862480 54.680542
22.638733 -8.090546 52.702087
18.760269 -12.532867 31.122131
22.407532 -13.528954 52.534790
22.868576 -12.185158 54.536865
18.820450 0.011070 26.872498
22.958969 -12.662247 54.874573
24.147781 -2.817513 59.352661
22.632217 -13.623405 53.174500
22.632217 -13.623405 53.174500
20.804703 24.215103 33.647949
22.424469 -14.803123 52.154602
18.619232 -7.970352 28.055420
22.979813 -11.779694 54.485535
22.502487 -14.583481 52.219543
22.975403 -11.934357 54.156372
22.807693 -8.125595 52.005005
22.768082 -13.752205 53.186951
23.073547 -12.174820 54.463562
23.000641 -12.729073 54.147705
23.063614 -10.218925 53.551758
23.063614 -10.218925 53.551758
22.934906 -8.655853 52.180908
23.124969 -12.899017 54.405823
23.124969 -12.899017 54.405823
23.095840 -12.640747 54.087769
24.417023 -2.622688 59.182617
22.934662 -13.754601 53.317871
23.185669 -10.967194 53.954224
23.128036 -9.989464 53.295959
23.164413 -12.889603 54.017761
23.127518 -9.831230 53.001282
23.238632 -9.772453 53.619019
23.201752 -12.611000 54.032532
23.202545 -10.051071 53.316040
23.202545 -10.051071 53.316040
23.204651 -12.653564 53.915344
23.431442 -11.901299 54.936340
23.249710 -12.911301 54.004395
23.379593 -12.268982 54.479858
23.419647 -12.443924 54.619751
23.343155 -9.989975 53.406982
23.343155 -9.989975 53.406982
24.270035 -3.076035 56.846069
23.215149 -13.417244 53.339539
23.347763 -8.301331 52.721497
23.277557 -13.183784 53.539612
24.995544 -2.481987 60.561157
23.520523 -11.258179 54.289001
19.089722 -8.179649 27.982727
23.706619 -11.823997 54.670776
23.600952 -12.948280 54.143555
23.693405 -11.668571 54.167114
23.762360 -11.933075 54.563477
23.604614 -13.296280 53.958496
23.604614 -13.296280 53.958496
23.777664 -12.119843 54.365295
23.807785 -11.689072 54.314941
23.680450 -13.567657 54.086853
23.665131 -12.353256 53.553345
23.747070 -13.115623 53.934082
23.747070 -13.115623 53.934082
46.262085 -25.545006 112.928223
36.042572 -8.991249 97.224548
34.481918 -25.739555 120.036560
15.868195 16.093887 29.278931
15.591019 11.770004 29.261353
15.591019 11.770004 29.261353
13.897964 10.071487 26.473389
11.914551 11.178459 12.662537
12.995544 10.212624 26.148376
10.204315 15.600700 3.484375
8.769608 21.176979 3.511230
6.356186 -2.255737 8.758667
6.125397 0.883652 9.020630
5.791351 -5.363152 8.701050
5.369843 18.459320 5.604187
5.290924 18.358040 5.533081
5.287643 18.302979 5.541504
4.585953 6.360489 7.568115
1.643127 -0.406258 4.354187
0.230057 0.420753 -2.679382
-0.194839 -3.406631 1.562561
-0.147659 -5.763748 -0.745483
-0.122437 0.254402 0.327942
-0.101257 14.745026 -13.001221
-1.530884 -2.580498 -9.679810
-0.593689 13.155396 -13.588928
-1.206451 13.795486 -15.054810
-1.206451 13.795486 -15.054810
-14.483047 28.566975 96.040344
-1.666977 17.465202 -17.589661
-2.187515 12.188271 -16.500122
-2.221008 12.195023 -16.502869
-2.591492 11.854156 -15.378235
-2.591492 11.854156 -15.378235
-2.019775 17.892387 -17.476440
-2.929001 12.052902 -15.513672
-5.471176 -1.300156 -12.366821
-4.972763 8.965408 -14.492249
-5.254700 11.002998 -14.489807
-5.322708 10.707733 -14.444580
-5.881241 4.694397 -13.442871
-5.929810 3.998436 -13.374695
-5.845856 5.395958 -13.698914
-5.670410 8.913559 -14.292603
-5.738693 7.062691 -14.497009
-5.938934 6.427666 -14.993164
-5.330963 15.625977 -16.246582
-5.948547 10.204536 -15.169250
-6.769913 -1.210785 -13.714111
-6.769913 -1.210785 -13.714111
-6.725006 6.829872 -16.163818
-7.274857 10.623627 -14.368347
-8.456985 -2.512299 -12.488831
-8.456985 -2.512299 -12.488831
-7.381256 2.423332 -16.250366
-822.388794 -403.887482 2144.310059
-821.928467 -404.703613 2130.732422
-850.683044 -377.312073 2200.626465
-871.885498 -395.525513 2250.445801
-842.244690 -407.570221 2165.292969
-856.703918 -369.287903 2198.977051
-865.373962 -396.417694 2217.433594
-863.301392 -371.064545 2210.290039
-7.041992 9.110458 -17.496399
-7.041992 9.110458 -17.496399
-873.308777 -373.307739 2233.156738
-903.304382 -372.684387 2308.349121
-838.663452 -391.991486 2137.517578
-838.663452 -391.991486 2137.517578
-887.875488 -365.336914 2256.894531
-901.449402 -353.436066 2290.602539
-854.101929 -366.488312 2164.359375
-891.095520 -371.790375 2258.239258
-891.095520 -371.790375 2258.239258
-884.960876 -350.263397 2229.892090
-910.854370 -375.256897 2289.922363
-910.854370 -375.256897 2289.922363
-872.279358 -403.072388 2189.461426
-869.728638 -409.148132 2181.393555
-881.845581 -376.991852 2214.141113
-902.629456 -370.148254 2264.773438
-7.418274 6.621964 -17.368103
-876.785339 -407.382416 2193.068359
-876.785339 -407.382416 2193.068359
-897.393433 -375.910339 2246.861816
-909.346252 -365.762878 2273.921387
-876.589050 -403.249298 2183.394043
-895.209778 -377.420410 2228.588867
-903.407776 -388.594727 2247.091797
-926.279358 -365.591888 2305.846680
-917.258057 -356.862854 2277.997559
-915.622620 -377.300354 2272.030762
-916.160767 -369.464935 2267.429688
-904.138611 -378.434418 2235.942871
-911.101074 -374.833801 2251.750977
-911.101074 -374.833801 2251.750977
-922.187683 -366.462646 2276.575195
-909.049866 -368.469971 2237.529785
-897.841736 -349.603912 2200.184082
-916.887756 -375.489777 2243.224609
-910.724243 -369.634094 2215.154297
-900.126282 -356.328857 2185.221191
-900.126282 -356.328857 2185.221191
-956.998108 -355.851776 2313.902832
-1018.551636 558.210754 2496.977539
-956.879089 -336.559509 2275.415039
-913.180847 -289.304779 2145.732422
-925.236572 -289.420563 2169.905762
-893.458496 -283.307831 2090.260254
-927.344238 -289.575775 2167.936523
-7.853485 6.168060 -18.727539
-898.021851 -291.112427 2094.569336
-898.021851 -291.112427 2094.569336
-891.412964 -291.960388 2077.047363
-912.985474 -286.690613 2126.794922
-914.660828 -284.518219 2125.773926
-7.690872 12.501915 -19.775879
-8.080734 6.506760 -20.081848
-7.611450 11.855461 -20.978821
-7.697708 11.158371 -20.822815
-7.765518 10.677299 -20.724854
-7.715042 11.136627 -20.825562
-7.540298 12.751442 -21.169922
-7.649765 11.937103 -21.020996
-7.576324 13.575714 -21.394592
-7.735168 12.314278 -21.100220
-7.414597 14.882454 -21.704468
-7.741272 12.267151 -21.095337
-8.179398 5.982498 -20.832214
-8.924652 2.875061 -19.395447
-7.560715 14.865448 -21.845215
-7.723007 12.958458 -21.733398
-9.019989 2.971298 -19.799194
-7.176178 15.535912 -23.315918
-7.908127 13.108215 -22.245483
-8.103638 8.166130 -21.997314
-7.276566 15.513031 -23.885864
-8.478973 6.880859 -21.792419
-8.651352 10.672379 -21.221985
-8.542877 8.248505 -21.857727
-8.470535 7.699326 -22.076782
-8.470535 7.699326 -22.076782
-8.635895 6.674461 -21.957275
-8.231110 12.377327 -22.611450
-8.702774 6.571915 -22.219910
-8.919968 6.065292 -22.052063
-8.828690 5.911125 -22.297607
-8.786758 5.717522 -22.433228
-8.899750 7.262390 -22.285461
-8.868591 8.430428 -22.367493
-8.830612 8.874222 -22.455872
-8.586884 11.412064 -22.916443
-8.258560 14.762970 -23.639648
-8.258560 14.762970 -23.639648
-9.152069 6.530106 -22.436218
-9.122192 7.084732 -22.481750
-8.944565 8.887985 -22.833679
-9.007141 9.030899 -22.919250
-8.811874 11.114113 -23.344910
-8.586655 12.924728 -23.718079
-9.058640 5.715752 -23.083496
-8.445312 14.044281 -23.980347
-9.073624 5.573410 -23.116455
-9.086075 5.720032 -23.121033
-7.897766 15.612068 -25.429077
-8.048203 15.239807 -25.225647
-7.961578 15.546669 -25.537048
-7.946030 15.659706 -25.586060
-1791.331665 -443.044434 3095.947266
-1793.744995 -441.819824 3091.279785
-1797.591919 -435.147217 3096.263184
-1490.870972 -268.121826 2567.521973
-23.320419 22.680038 -6.052612
-1718.323975 -501.958252 2729.539551
-1718.323975 -501.958252 2729.539551
-1671.045776 671.451477 2768.832031
-1960.689331 -494.574036 3260.289062
-1661.352539 688.172546 2861.292480
-11.625580 7.904564 -20.939270
-11.625580 7.904564 -20.939270
-5.686188 7.071655 -14.567932
-4.848557 9.364449 -14.764709
-5.607224 8.375504 -14.793213
-1.879211 13.624100 -15.494324
-1.847305 12.395721 -15.123474
-1101.097778 -903.805969 5037.361816
-1096.910400 -817.459412 5029.499023
-2.738083 -2.953293 -11.623535
-894.072327 665.561096 4471.541992
-1006.786133 -968.689697 4920.557617
-983.789062 -961.688599 4889.157227
-1.065506 14.820312 -14.381836
-0.787872 14.921295 -13.961914
-0.751785 12.547592 -13.398376
-1.428574 -2.434334 -10.326660
-0.312088 15.844139 -13.596741
-7.166367 6.342644 -16.484497
-0.100052 14.670082 -12.848816
-0.038162 14.270279 -12.723022
-1.265579 -2.883446 -5.185608
-0.358246 -0.716095 -4.491394
0.342438 0.675522 -3.573303
0.413620 0.699432 -3.731628
0.694992 -0.319489 -3.642822
0.674805 -2.291298 -2.296509
0.890488 0.642052 -3.137146
2.360199 -2.304230 0.250610
-6.172379 16.077553 -18.921326
-9.041168 6.812897 -20.810974
3.315643 -2.263763 1.513611
4.305374 -7.409561 4.067261
-9.071106 5.750450 -20.802734
6.735443 -0.665443 1.303711
6.683990 -2.750496 2.123718
6.829575 0.068954 1.126892
6.906418 0.000000 1.138550
7.016144 0.568298 1.725647
6.813934 -5.186699 0.225891
6.872131 -7.053230 4.308838
7.441254 -5.094254 1.026123
7.780594 -7.268295 5.788879
8.552658 13.469635 0.393066
8.552658 13.469635 0.393066
8.463806 -1.681824 4.184570
8.613571 -4.873863 2.526001
9.493195 9.041298 2.803711
9.639572 13.860443 1.083923
-9.421814 5.163628 -21.359802
7.775986 10.008247 -26.547424
10.324585 15.319672 1.669861
12.275894 -11.533607 33.836853
12.510941 -12.423668 33.981934
11.435272 13.424568 7.659119
11.727554 12.240334 8.059021
11.868408 10.141022 8.302734
11.957260 8.643768 8.162842
12.290451 9.362114 8.626648
12.362183 8.704666 8.642090
12.460052 9.706848 10.437012
12.699997 10.354919 8.749390
12.764755 10.030266 9.880615
12.984451 9.442551 9.320251
13.462006 8.808243 9.938110
-9.709549 7.035973 -21.562866
19.334946 -7.368271 28.821289
-58.235237 -11.968056 20.761658
-77.187668 30.057285 43.131531
-52.724457 26.727501 19.440857
-52.472137 26.416775 19.760132
-52.478859 24.564888 20.186951
-52.496216 24.495316 20.210815
-52.530800 23.720711 20.325256
-49.157265 26.310074 18.705627
-42.553993 25.555077 15.891418
-8.781586 15.855865 -23.611938
-8.766739 15.838875 -23.582397
-9.720001 7.033600 -21.583679
-9.678680 6.566833 -21.345093
-9.476578 5.695015 -21.196838
-9.247040 8.584221 -21.163147
-8.989624 7.610550 -21.112549
-8.458817 15.261620 -21.637024
-7.881332 17.278023 -22.358398
-9.023041 6.926445 -20.785767
-9.023041 6.926445 -20.785767
-9.604736 3.948235 -19.912842
-9.540009 4.036781 -19.870178
-8.526947 13.224174 -21.144653
-8.487579 13.357285 -21.126160
-8.871765 6.923134 -20.433411
-8.785599 8.494431 -20.484436
-8.811874 5.764961 -20.319580
-8.685913 8.655846 -20.367065
-7.569351 16.084450 -21.432190
-7.942871 15.230225 -20.525146
-8.373978 9.816978 -19.940186
-7.934769 14.784775 -20.509338
-7.368332 16.814102 -21.303711
-7.949371 14.479523 -20.444092
-7.967377 14.129868 -20.380981
-8.149368 11.764923 -20.049255
-8.144302 11.593826 -20.008972
-8.472153 7.649864 -19.516785
-8.472153 7.649864 -19.516785
-8.504852 6.748352 -19.336609
-7.883911 15.307716 -19.522949
-7.997314 14.001297 -19.345276
-8.402878 8.164284 -18.710083
-6.595490 6.786987 -16.056458
-6.723114 6.427292 -15.851257
-6.172668 10.334366 -15.409363
-7.500122 -3.665863 -12.458374
-5.809174 12.160408 -15.235168
-6.084152 6.965370 -14.706116
-5.993454 6.392349 -14.882996
-5.715714 6.509399 -14.865295
-5.614807 10.443474 -14.813599
-6.796631 13.420036 -6.118164
-2.382233 15.622833 -16.005798
-2.351486 15.658585 -15.988953
-2.001785 17.107063 -16.595276
-2.119919 13.729698 -15.126709
-2.104019 12.475227 -14.776367
-1.919815 13.757996 -14.851440
-1.449921 16.944496 -15.755005
-1.362457 14.836113 -15.192505
-1.439438 14.872482 -15.076965
-4.226990 13.688629 -6.719910
-1.010925 17.262627 -15.207092
-1.075272 15.253029 -14.647461
-1.284073 15.357269 -14.192566
-1.357117 13.795746 -14.029419
-1.309814 13.844025 -13.970581
-1.251862 13.956558 -13.852173
-1.195129 14.471840 -13.822266
-0.800400 13.184395 -13.921692
-0.730911 13.807350 -13.938477
-0.350174 15.259712 -13.797791
-0.343781 16.514984 -13.280823
-0.316605 14.406868 -12.534607
-0.345169 13.363113 -12.420715
-0.061554 13.264153 -13.066772
-0.190842 15.651146 -12.695068
32.873917 -6.710556 -143.917236
-0.132248 15.913490 -12.720337
-0.124054 15.548927 -12.644043
-0.147827 14.138031 -12.293945
32.494797 -7.701691 -144.479553
-13.005539 1.786919 37.749878
-0.025726 15.445572 -12.458374
-1.604156 -2.080971 -5.957214
-1.623291 -2.107559 -5.721985
-1.556549 -2.900734 -5.736084
-1.490067 -2.279251 -5.856934
-1.607986 -2.787216 -5.558350
-1.500000 -1.931480 -5.614685
-1.124619 -4.607872 -6.384583
-1.262177 -2.552917 -5.071655
-1.179932 -2.634186 -5.227783
-1.089096 -1.532043 -5.117798
-1.089096 -1.532043 -5.117798
-1.142960 -2.602562 -4.933167
-0.906174 -1.317482 -4.546082
-0.242233 1.070457 -6.085144
-0.050232 -5.622276 -5.167847
0.341690 -4.891754 -4.322021
0.471130 0.516487 -3.644714
0.444656 0.529617 -3.583252
0.347961 -1.482605 -3.152771
0.909058 -4.271294 -3.175354
1.542618 -4.140320 -2.401611
3.785980 0.949112 -16.657227
2.149780 -1.567276 -0.778320
2.156113 -2.050026 -0.637085
2.509506 -2.312622 -0.097961
2.909836 -7.534637 1.916504
3.107742 -2.229134 1.305481
3.250473 -1.709808 0.706909
3.211014 -1.419403 1.069336
3.238831 -1.054886 1.019226
3.192917 -2.163971 1.226135
4.646866 17.030884 -0.837952
4.382553 8.100143 -0.458496
3.642197 -7.366447 3.099548
3.733780 -7.240700 2.634827
4.689529 4.315857 0.777222
4.679703 5.846085 1.024475
4.599472 -4.829559 0.196350
4.672363 0.194359 1.801697
5.968460 -5.058220 0.460632
6.753403 -2.859291 1.802551
7.022232 -6.591087 3.570496
7.495407 -4.931122 0.824524
8.396759 18.616768 -2.027893
7.897125 1.168846 2.087830
7.939758 -4.264915 2.307129
8.416321 -3.607941 2.982727
8.505447 -3.616379 2.469971
9.346970 13.867531 0.618652
9.475311 14.267349 -0.271545
10.187164 9.094849 0.982300
11.663345 -5.169312 30.481934
11.029861 9.383835 8.587280
11.212280 13.416557 6.074463
11.087296 8.834587 6.453674
11.458649 8.170113 6.998535
12.341019 -8.606720 26.653687
11.920959 17.526993 5.466187
12.135788 12.182076 6.493347
12.256271 11.975273 8.392456
12.212021 9.427544 7.088623
12.425323 19.925850 4.648560
12.400558 15.006973 5.884583
12.285538 8.708305 6.888916
12.421066 11.360992 6.809204
12.487732 9.126907 7.171326
12.538864 9.656578 7.132019
12.594528 9.636284 7.169739
12.680908 10.740097 8.878601
12.680908 10.740097 8.878601
12.782410 18.128784 8.234802
12.880493 8.782219 7.429199
13.108887 9.724442 7.647461
13.186951 9.070015 10.039490
13.467346 14.483482 7.235657
13.517929 15.377998 10.616577
17.104599 -11.758606 27.092102
17.335144 -11.563766 27.066223
17.481873 -11.715485 27.020325
17.847916 -11.308289 27.359009
17.736618 -12.314598 26.565674
18.400436 -7.021065 25.166443
18.514282 -6.826927 25.375488
18.715271 -0.047363 23.082520
18.846268 -7.249931 25.016235
19.006943 0.107819 23.006897
19.101898 -6.579178 25.032410
19.264954 -6.494720 24.983704
19.578201 0.380524 23.020142
-10.060837 7.420822 -21.468567
-9.531418 5.716614 -21.000854
-9.303146 11.937988 -21.445618
-8.617233 16.000557 -22.095764
-9.203751 13.665703 -21.517334
-9.203751 13.665703 -21.517334
-9.301437 7.857117 -21.009888
-8.992462 14.660095 -21.514465
-9.035065 13.367691 -21.375977
-9.048141 8.239906 -20.624817
-8.913879 6.861244 -20.366089
-8.457672 15.111328 -20.995605
-8.793976 6.673485 -20.168396
-8.497681 7.800575 -20.416199
-8.741959 8.082657 -20.136902
-7.728317 16.215279 -21.323242
-7.711227 16.188835 -21.272095
-8.375168 6.012383 -19.855530
-7.537109 16.395805 -21.113586
-8.714218 8.164307 -19.667786
-7.442062 16.281677 -20.975220
-8.241241 15.246346 -19.982849
-8.575806 7.018654 -19.084167
-6.560303 6.349480 -16.468811
-6.620926 6.988121 -16.258484
-5.579010 10.100159 -15.478516
-5.641586 8.504692 -15.248230
-5.454254 10.810478 -15.497803
-5.309311 6.528816 -14.843201
-5.232101 6.541168 -14.729736
-4.523392 5.943855 -14.015259
-1.785187 15.641190 -16.658264
-1.679306 17.242401 -16.841553
-1.584595 18.306656 -16.908508
-1.623734 16.121841 -16.527710
-1.610199 13.620728 -15.988708
-1.523041 13.598389 -15.861938
-1.502548 13.709747 -15.777222
-1.446686 13.762428 -15.712463
-1.378860 13.712036 -15.605286
-1.280838 13.491646 -15.504578
-1.184891 15.770515 -15.781616
-1.184891 15.770515 -15.781616
-1.270782 13.918076 -15.493835
-0.895660 18.395164 -15.995239
-1.122574 13.343735 -15.241516
-1.095535 15.114784 -15.417725
-1.095535 15.114784 -15.417725
-1.167816 15.121407 -15.346619
-0.942245 16.531883 -15.671753
-1.040894 15.082497 -15.329834
-0.865860 16.687630 -15.571045
-0.957718 14.884735 -15.165527
-1.691376 12.154228 -13.950684
-0.951996 14.862724 -15.155396
-0.958771 13.865639 -15.053345
-0.944260 14.804451 -15.130005
-1.631454 12.203720 -13.919800
-0.728241 17.240540 -15.501587
-0.897385 14.702271 -15.045593
-0.883484 14.937515 -15.069214
-0.890305 14.689041 -15.024109
-0.848526 14.995010 -15.026611
-0.862564 14.067703 -14.859497
-0.801331 15.276093 -15.037964
-0.810715 14.331367 -14.830444
-0.726349 15.016983 -14.851318
-0.726349 15.016983 -14.851318
-0.693253 15.426857 -14.912903
-0.737396 14.498726 -14.767273
-0.737396 14.498726 -14.767273
-0.723633 13.907494 -14.678894
-0.723633 13.907494 -14.678894
-0.677368 15.234932 -14.845520
-0.725449 14.100174 -14.663757
-0.702560 14.583549 -14.730225
-0.676941 14.669777 -14.710022
-0.628891 15.407547 -14.802734
-0.661880 14.370132 -14.637024
-0.661880 14.370132 -14.637024
-0.661880 14.370132 -14.637024
-0.514435 16.245193 -14.984802
-0.603012 15.321739 -14.774414
-0.636551 13.606483 -14.581909
-0.613876 13.726013 -14.580566
-0.550369 15.068100 -14.613098
-0.510544 15.469833 -14.648376
-0.607941 14.128876 -14.311646
-0.381241 16.136566 -14.770081
-0.477280 15.300186 -14.548096
-0.517014 14.210396 -14.387085
-0.490082 14.823578 -14.442261
-0.261429 18.206360 -15.034485
-0.433838 15.500496 -14.529785
-0.455231 13.249245 -14.228333
-0.462830 14.145950 -14.284790
-0.251770 17.324379 -14.840820
-0.271591 16.779938 -14.739197
-0.430893 13.282509 -14.201721
-0.342041 13.772034 -14.171997
-0.295929 13.971535 -14.111084
-0.246857 14.752235 -14.075378
-0.319901 13.415985 -13.873535
0.011658 18.516426 -14.751831
-0.194504 14.834076 -13.994568
-0.092667 15.471779 -13.989624
-0.101364 14.012871 -13.796143
-0.101364 14.012871 -13.796143
-0.109528 14.565910 -13.823364
-0.058151 15.319214 -13.915039
-0.041901 15.435928 -13.915161
-0.041901 15.435928 -13.915161
-0.097626 15.566170 -13.858521
-0.073151 14.693314 -13.784363
-0.040298 15.290939 -13.874756
-0.008896 15.108192 -13.800354
0.009018 15.512451 -13.855042
-0.014526 14.777039 -13.706543
-0.077942 14.439735 -13.583740
0.072388 15.538979 -13.774292
0.037048 14.858963 -13.652100
0.034470 14.829620 -13.644836
0.024658 14.512650 -13.600525
0.091644 15.598854 -13.756958
0.071320 14.777122 -13.594727
0.215469 16.375160 -13.927429
0.157867 14.144249 -13.423584
0.153671 14.231941 -13.380493
0.210831 14.909668 -13.415588
0.215576 14.154701 -13.351196
0.496338 17.594872 -13.793884
-1.485031 7.053421 -9.604858
-1.498627 6.552116 -9.507263
-1.471054 6.592773 -9.513428
-1.336990 9.243881 -9.930481
0.408356 14.628059 -13.147644
-1.294250 9.622108 -9.994202
0.380890 13.273682 -12.938477
-2.139755 -0.066650 -7.645691
-2.139755 -0.066650 -7.645691
0.678513 17.957008 -13.576355
0.597458 16.057899 -13.267639
-2.267303 -3.260300 -6.930237
0.535843 13.659325 -12.786926
0.669983 14.532227 -12.800476
-2.070877 -2.689125 -6.769836
-2.063278 -2.755493 -6.740723
-2.034027 -2.375557 -6.780701
-2.058075 -2.787010 -6.691162
0.612228 13.941742 -12.585999
-2.009903 -2.223282 -6.812988
-2.048798 -2.643272 -6.713562
-2.036652 -2.643356 -6.728088
-2.000320 -2.182297 -6.781860
-2.028687 -2.688744 -6.679199
-2.022766 -2.808083 -6.654846
-1.972977 -2.385201 -6.721008
-1.997177 -2.721016 -6.645020
-1.919510 -1.814720 -6.791260
-1.942337 -2.344749 -6.676270
-1.940186 -2.277679 -6.662476
-1.908493 -2.282806 -6.641296
0.786453 14.500298 -12.619202
0.810699 15.037376 -12.700439
-1.933289 -2.742836 -6.545715
-1.933289 -2.742836 -6.545715
-1.931824 -2.790352 -6.519226
-1.896820 -2.313782 -6.609070
-1.846985 -1.673325 -6.712036
-1.130295 -4.911179 -7.622375
-1.920624 -2.787392 -6.472900
-1.928894 -3.209496 -6.392395
-1.825821 -1.575096 -6.707092
0.878098 15.375092 -12.679016
-1.130753 -4.696503 -7.511597
-1.691269 -2.923943 -6.217407
-1.526001 -1.970932 -6.108948
-1.480789 -2.982132 -5.821655
-1.508438 -2.921402 -5.771301
-1.417694 -2.273094 -5.835815
-1.382355 -1.558739 -5.945007
-1.364532 -1.700111 -5.938660
-1.412460 -2.503433 -5.736572
-1.392258 -2.847450 -5.685669
-1.349991 -1.734337 -5.799622
-1.289169 -1.585602 -5.878906
-1.326584 -2.318871 -5.665833
-1.319717 -2.647270 -5.541077
-1.308105 -2.510399 -5.566650
-1.188705 -1.632309 -5.586548
-1.210037 -2.556946 -5.424072
-1.193207 -2.725945 -5.355164
-1.051666 -1.739098 -5.368164
-1.054153 -1.923332 -5.339111
-1.087738 -2.783325 -5.161926
-1.087738 -2.783325 -5.161926
-0.990433 -2.395180 -5.099792
-0.451614 -4.443062 -5.514465
-0.199005 -4.665962 -5.124207
-0.199005 -4.665962 -5.124207
0.118652 -4.378822 -4.644043
0.251297 -4.349518 -4.408020
0.342270 -4.333694 -4.247986
0.485809 -4.331055 -4.053040
2.300858 19.135727 -9.670593
0.622406 -4.305542 -3.805603
0.299866 -1.800644 -3.224365
0.439468 0.563004 -3.627869
0.362839 -2.120537 -3.037720
0.345047 -2.224747 -2.927246
0.367859 -2.348274 -2.858765
0.809525 -4.287331 -3.538269
0.887604 -4.346710 -3.516296
0.489807 -1.651382 -2.845947
0.518738 -1.367287 -2.892456
0.494034 -2.458206 -2.625977
0.757309 0.083923 -3.420837
0.757309 0.083923 -3.420837
0.860168 1.029907 -3.292603
0.888458 0.617783 -3.265320
0.883347 0.959259 -3.264221
0.883347 0.959259 -3.264221
0.959457 0.608002 -3.253113
0.791504 -1.900688 -2.397034
1.034668 0.612129 -3.037292
0.838898 -1.043518 -2.350403
1.247299 -4.217049 -2.792847
0.883499 -1.757858 -2.161926
1.447968 -0.328331 -2.504150
1.710907 -4.387077 -2.023865
1.849609 0.327339 -1.260620
2.129135 -4.172005 -1.513123
2.119339 -4.089371 -1.418762
1.937973 -1.456894 -0.577148
1.968262 -2.045807 -0.274597
2.192719 -1.628258 -0.269897
2.136948 -1.940956 -0.041321
2.132294 -2.333626 0.037964
2.143845 -2.121094 0.006104
2.126129 -2.522087 0.145142
2.253113 -1.488686 0.024414
2.250046 -2.343269 0.261536
2.257980 -2.259789 0.296387
2.300247 -1.669250 0.176270
2.348297 -1.202827 0.095032
2.351288 -1.105461 0.101807
2.413757 -2.019318 0.365540
2.448853 -1.987656 0.514648
2.466293 -1.624252 0.456604
3.112244 -3.957077 0.186340
2.934860 -2.346123 1.387634
2.985031 -2.396637 1.481567
3.032578 -1.587296 1.367493
3.078354 -1.153130 1.330200
3.058762 -1.920219 1.513672
3.158585 -1.770798 1.352417
3.664642 -4.338188 1.049316
3.238190 -7.531006 3.007874
3.238190 -7.531006 3.007874
3.318878 -7.284325 3.186157
3.424316 -7.554108 3.266602
4.422119 7.433769 0.719360
4.203308 -7.431038 4.365662
4.706161 0.271706 2.545410
4.798279 0.268280 2.645630
6.921768 -3.953438 1.328125
6.578064 13.845894 0.612488
7.307617 -4.993057 0.999207
6.781006 -6.825562 4.461426
6.885590 -7.303970 4.694519
6.910919 -7.413742 4.743835
6.910187 -7.372704 4.782410
7.480392 -4.449188 2.237976
6.992554 -7.396645 4.798889
6.987427 -7.286217 4.860474
7.735504 0.332962 3.186829
8.269730 18.640182 -1.708557
8.077408 -4.314293 3.012268
8.217041 15.523026 -0.812622
8.347809 19.716446 -1.963257
8.352768 18.236946 -1.507080
7.665756 -7.262688 6.050476
8.504715 19.335289 -1.786499
8.229767 0.470978 3.366394
8.154877 -2.601967 4.663513
8.588333 15.324280 -0.048218
8.588333 15.324280 -0.048218
8.958099 19.776390 -2.052673
8.941864 15.446709 0.412659
9.205597 14.459167 1.075378
9.560837 19.738434 0.294189
9.092743 8.654350 7.406982
9.811935 15.258186 1.703735
9.069336 11.872368 7.209106
9.989166 18.020378 1.082214
9.243286 9.344452 7.980042
10.041168 15.656807 2.031311
10.241409 16.556343 1.971680
10.241409 16.556343 1.971680
10.275116 16.988014 1.885986
10.275116 16.988014 1.885986
10.517044 14.658539 2.960449
10.527054 14.816582 2.898743
10.536499 14.757431 2.955017
10.538498 14.705093 2.969971
10.552124 14.928223 2.911926
9.942596 9.420433 9.146423
10.178528 9.470329 9.227295
10.808670 18.191597 2.206421
10.056473 16.963913 9.504272
10.056473 16.963913 9.504272
10.709183 10.294998 9.775879
10.837982 6.101074 11.109863
10.921921 8.812881 10.005188
10.896179 11.179726 9.955505
10.942764 11.991745 9.442200
11.179153 16.439278 8.573975
11.184662 12.262642 9.867004
11.476227 15.122391 9.562744
11.631363 9.485794 10.391235
11.669922 9.749428 10.386963
11.702942 10.213638 10.253967
11.702942 10.213638 10.253967
11.628662 18.412735 8.953369
11.908554 12.913887 9.687500
11.864670 18.317833 8.616638
11.944489 12.079659 9.884338
11.944977 11.151276 10.362366
11.950882 10.403618 10.589172
12.030716 14.537178 9.353333
11.932175 17.208061 9.286194
11.966980 17.872437 9.142395
12.194916 9.252213 10.712097
12.167389 14.822174 9.296936
12.256195 11.158958 10.322388
12.358353 18.575729 7.757874
12.520981 8.228622 11.189026
12.499847 20.399193 7.234680
12.547043 18.552521 7.726318
12.658310 10.442429 10.988525
12.822662 11.133781 11.223022
12.846024 11.541397 11.111145
13.021317 11.096359 11.415955
13.011551 12.149323 11.561340
13.053497 12.790428 11.362061
13.171494 10.921715 12.070557
13.193863 13.656067 11.209778
13.213928 13.854263 11.079956
13.304276 9.142891 12.401672
13.360580 8.937111 12.132202
13.300034 15.223236 10.847351
13.392166 16.672638 10.507446
14.306320 18.540253 9.863708
14.316269 18.450790 9.984924
-53.975311 -22.108360 -13.436340
-52.617523 -11.609024 -13.758240
-52.625877 -11.692207 -13.663391
-91.051651 -22.812187 -4.471313
-52.289055 -24.572403 -11.974243
-52.647400 -17.674034 -12.135986
-52.743324 -17.700661 -11.899902
-51.906914 -24.653679 -11.601807
-52.775963 -17.509361 -11.718140
-52.142944 -24.473801 -11.386353
-52.652603 -17.749260 -11.579041
-52.652603 -17.749260 -11.579041
-9.276428 7.681015 -21.738892
-8.570496 13.884460 -22.059875
-8.795059 7.874886 -21.303101
-8.838455 7.422340 -21.235107
-9.186386 4.060448 -19.816650
-8.311584 6.359993 -20.045410
-7.963974 15.226013 -20.334534
-8.100052 12.247849 -19.915344
-8.201950 10.841812 -19.742920
-7.503067 6.865723 -17.685364
-6.665863 6.974281 -16.118530
-5.672546 11.425957 -15.806641
-5.624786 11.205368 -15.763855
-2.938187 -5.367218 -13.854004
-1.673645 14.284111 -15.823853
-1.505386 13.634102 -15.499573
-1.488556 13.903107 -15.459229
-0.949890 13.677719 -14.708984
-0.905869 13.723587 -14.651550
-0.628448 16.173401 -14.829468
-2.493713 -2.827530 -11.908875
-0.258331 15.251488 -13.859497
-0.245453 13.837120 -13.713745
-0.173630 15.579987 -13.834167
-0.167633 15.474579 -13.809998
-1.149872 -5.146118 -11.205383
-1.240463 0.230042 -10.780823
0.409134 13.302711 -12.601135
-0.620361 -5.292549 -10.227112
-2.310272 1.998611 -9.377991
0.793518 17.170975 -12.962952
-0.335739 -5.009293 -9.907776
-0.244080 -5.015289 -9.784485
-2.482834 -3.583786 -8.047913
-2.528641 -2.448242 -7.445984
-1.386261 6.596313 -8.697083
-2.088776 -1.486290 -7.136902
-2.281067 -3.116737 -6.846069
-2.053741 -2.221962 -6.823059
-2.039520 -2.285370 -6.817810
-2.046066 -2.374802 -6.774780
-2.057571 -2.767113 -6.696289
-2.018097 -2.372345 -6.745667
-2.021271 -2.290085 -6.747192
-2.083969 -3.219666 -6.590454
-2.030701 -2.670616 -6.681824
-2.000702 -2.237167 -6.730652
-2.030228 -2.831467 -6.609497
-1.975830 -1.600754 -6.734802
-1.926910 -2.173859 -6.636047
-1.954041 -2.672897 -6.539368
-1.957001 -2.785789 -6.499084
-0.423798 -5.787125 -7.242676
-1.109924 -4.523621 -6.531921
-1.044785 -4.515976 -6.419739
-0.932236 -4.598145 -6.344666
-0.927414 -4.506035 -6.207703
-1.512360 -2.770889 -5.789734
-1.456635 -1.967293 -5.879761
-1.511993 -2.719780 -5.735046
-1.387238 -1.747276 -5.909851
-1.400650 -1.864159 -5.886780
-1.460541 -2.380867 -5.771423
-1.400208 -2.176926 -5.791565
-1.324310 -2.172020 -5.687378
-1.147614 -1.784363 -5.554260
-1.199799 -2.825394 -5.342407
-1.180069 -2.264740 -5.378540
-1.095215 -1.731934 -5.411865
-1.095215 -1.731934 -5.411865
-1.107010 -2.741470 -5.178650
-1.046646 -2.244415 -5.225281
-0.361420 -4.517029 -5.459351
-1.277039 -8.139030 -3.998352
-0.994553 -8.106209 -3.529419
0.034531 -4.377930 -4.778931
0.027390 0.027527 -4.110474
0.480469 -4.530746 -4.027588
-0.090820 -2.568588 -3.343933
0.751282 -4.326775 -3.738708
0.329193 -1.937004 -3.145874
0.329193 -1.937004 -3.145874
0.293594 -2.471939 -3.041626
0.293594 -2.471939 -3.041626
0.326263 -1.036537 -3.167542
0.364822 -1.816902 -3.074158
0.385666 -1.567070 -3.117126
0.959656 -4.806969 -3.446716
0.479919 -2.119011 -2.832458
0.510529 -2.497818 -2.744812
0.524963 -2.438080 -2.664673
0.554672 -2.619118 -2.667175
0.538391 -2.542068 -2.622925
0.656723 -1.208687 -2.825256
0.986862 0.612999 -3.272034
0.740707 -1.624588 -2.661926
0.996704 1.163551 -3.242798
0.735703 -1.348679 -2.629578
0.735703 -1.348679 -2.629578
0.839569 -7.864029 -0.825623
1.896500 -4.086502 -1.841614
1.989685 -2.149536 -0.481934
2.177094 -2.224289 -0.161987
2.247635 -1.403160 -0.283630
2.186020 -2.189087 -0.103210
2.236603 -1.991371 -0.151245
2.411316 0.550552 -0.539368
2.323227 -1.573578 -0.012390
2.825851 -3.942268 -0.385315
2.408096 -1.345573 -0.038391
2.399887 -1.603760 0.031738
2.388794 -2.244904 0.197266
2.427734 -2.409332 0.276733
2.461899 -2.110756 0.349609
2.461899 -2.110756 0.349609
2.645065 -1.786072 0.525635
3.054825 -1.875305 1.203369
3.067657 -2.074028 1.227844
3.101089 -1.999840 1.286316
3.112839 -1.950050 1.276428
3.092453 -2.185593 1.352783
3.197723 -1.004311 1.124573
4.103561 -4.814163 0.637817
4.772797 5.939751 1.254028
6.739243 -1.363091 1.409912
8.281754 19.320038 -1.771851
8.036804 -3.840416 3.198792
8.769989 15.127121 0.146484
8.743423 -3.619995 4.003662
8.750168 -3.682404 4.444397
9.280533 14.545036 1.004578
9.286942 14.535866 1.049255
8.939987 -3.629578 4.829834
8.549805 9.152580 6.850098
8.732544 8.669014 6.740417
8.732544 8.669014 6.740417
8.685211 9.101501 6.914062
8.721039 9.033218 6.963135
10.105347 15.631210 2.137817
7.010056 21.085938 13.206848
9.959854 9.345161 8.949097
10.577454 9.283386 9.865845
10.847595 6.115570 11.089722
10.936539 10.903030 9.922058
10.961304 10.813225 10.023438
11.524658 12.367210 10.122192
11.785904 10.684212 10.250671
11.858414 9.339371 10.750305
11.802704 6.955849 11.747864
11.817535 7.088501 11.707397
12.146698 9.570000 10.824402
12.203979 10.935005 10.560425
12.543625 10.046989 11.308105
12.703110 8.202621 12.566040
12.829788 11.057854 11.583801
13.042374 9.396408 12.421753
13.197876 9.347298 12.446228
13.301651 18.136925 11.120361
-9.606094 8.383095 -21.315430
-9.359512 8.417015 -21.073792
-9.385483 6.363747 -20.946716
-9.356537 5.732262 -20.913208
-9.327744 7.328697 -20.954895
-9.174805 8.522453 -20.782898
-8.967728 6.911865 -20.603210
-8.967728 6.911865 -20.603210
-8.960205 8.638527 -20.355408
-9.705383 3.922791 -20.044922
-9.676514 3.964706 -19.981018
-9.095963 7.502571 -20.001038
-8.913971 6.463272 -19.910767
-8.506180 13.524620 -20.180847
-8.890900 8.227898 -19.798523
-8.780884 12.264275 -19.940308
-8.877167 10.797180 -19.823059
-8.656082 12.373894 -19.834473
-8.398819 6.030510 -19.482788
-8.895874 7.642387 -19.399902
-9.036575 8.189514 -19.379761
-8.857895 7.923424 -19.336914
-9.051437 6.735649 -19.184814
-9.023209 7.843971 -19.238953
-8.429230 12.585205 -19.313843
-8.890472 6.423950 -18.967834
-8.457230 12.405350 -19.116516
-9.329071 12.708000 -18.542297
-8.092087 9.517395 -18.272217
-7.917358 6.694939 -17.545532
-7.992889 6.786278 -17.548401
-7.036652 6.821625 -16.298340
-6.734833 9.487289 -16.333618
-7.010574 6.944450 -16.140076
-6.909729 7.012314 -16.008728
-6.909729 7.012314 -16.008728
-6.878494 6.932732 -15.930786
-2.245331 13.014130 -15.449097
-2.177307 13.674255 -15.468933
-2.177307 13.674255 -15.468933
-2.162231 13.023148 -15.343323
-2.162231 13.023148 -15.343323
-3.302658 -5.519287 -13.852112
-1.806686 13.978920 -14.939697
-3.190842 -5.452576 -13.576111
-3.139771 -5.533585 -13.569519
-2.610443 -6.515045 -13.520447
-2.305588 -6.472595 -13.049133
-1.334320 13.121979 -14.208801
-2.496933 -5.364403 -12.496826
-0.878403 13.175819 -13.722046
-2.091309 -5.843407 -12.170349
-2.999405 -0.233200 -12.365967
-0.749451 13.848969 -13.516907
-1.798065 -6.039314 -11.999878
-1.798065 -6.039314 -11.999878
-1.959305 -5.487564 -11.933228
-1.893326 -5.268478 -11.764893
-1.798264 -5.317535 -11.733215
-3.589798 -8.299675 -10.797546
-3.458725 -8.161400 -10.635681
-3.458725 -8.161400 -10.635681
-1.244232 -5.725960 -10.997314
-0.669128 -5.199814 -10.122253
-0.674469 -5.111313 -10.059387
-1.627106 16.158798 -11.186890
-0.968887 -2.330727 -10.030579
-0.912048 -2.412407 -9.975891
-1.621445 14.392189 -10.954590
-2.024170 9.366722 -10.432983
-1.869431 9.428452 -10.266663
-0.362122 -5.070885 -9.634521
-1.606689 9.926620 -9.959473
-1.875275 11.962067 -9.876587
-2.065292 6.556175 -9.240784
-1.921555 6.537346 -9.259583
-2.164581 6.561073 -9.207153
-2.648422 -3.561470 -8.255676
-2.593399 -3.586174 -8.149048
-2.275314 -1.234779 -8.186951
-1.411652 -4.710075 -7.829102
-0.904526 -5.859047 -7.869019
-1.189453 -4.883308 -7.620850
-2.368500 -2.215767 -7.368958
-2.368500 -2.215767 -7.368958
-0.930679 -5.436356 -7.524902
-2.236008 -2.118164 -7.294373
-1.935196 -1.523354 -6.889832
-1.958969 -1.813972 -6.852905
-1.981659 -2.153938 -6.785095
-2.006775 -2.697525 -6.679504
-1.984070 -2.466202 -6.698730
-2.001022 -2.606514 -6.679199
-2.010452 -2.768578 -6.654968
-2.006729 -2.724380 -6.659180
-1.944489 -2.158859 -6.720642
-1.864395 -1.565536 -6.784851
-1.981659 -2.791481 -6.629028
-1.904419 -2.183365 -6.658508
-1.882065 -2.272926 -6.604675
-1.823349 -1.788094 -6.662109
-1.925995 -2.833290 -6.536682
-1.843307 -1.998528 -6.623108
-2.054077 -2.837440 -6.468201
-95.239235 -14.575783 29.638794
-1.523117 -2.747551 -5.910034
-1.562485 -2.081947 -5.948914
-2.057953 -8.220169 -5.180054
-1.338211 -1.659851 -5.941833
-1.417709 -2.482979 -5.825623
-1.317795 -1.767059 -5.894287
-1.228867 -1.708023 -5.783325
-1.158737 -1.220131 -5.722961
-0.555405 -4.439041 -5.670410
-1.170700 -2.509384 -5.438660
-1.170700 -2.509384 -5.438660
-1.172958 -2.862488 -5.408264
-1.218872 -2.127815 -5.405151
-1.085968 -2.085625 -5.450073
-1.197144 -2.309219 -5.278564
-1.065018 -2.497879 -5.298035
-1.072556 -2.615021 -5.285339
-1.118240 -1.907455 -5.321106
-1.118240 -1.907455 -5.321106
-1.010040 -2.115440 -5.320740
-1.022095 -1.473892 -5.348633
-0.875656 -1.431786 -5.398499
-1.056320 -2.840866 -5.114746
-0.982300 -2.677544 -5.110168
-0.850601 -1.252037 -4.945862
0.189224 -4.559891 -4.603516
-13.920059 -8.746262 2.436584
-0.218872 -2.149597 -4.098389
-0.254074 -2.811211 -3.988708
0.656891 -4.257408 -3.830750
0.721649 -4.492752 -3.617981
0.721649 -4.492752 -3.617981
0.375687 -1.580956 -3.345947
1.007324 -4.215714 -3.321655
0.418335 -2.026512 -3.145142
0.418335 -2.026512 -3.145142
0.337204 -0.986252 -3.165161
0.418640 -2.361229 -3.035400
0.467331 -2.153564 -3.023254
0.467331 -2.153564 -3.023254
1.099670 -4.197433 -3.117188
0.884155 0.549767 -3.394470
0.951263 0.663498 -3.346313
1.055832 1.093353 -3.365540
1.050507 0.565659 -3.308228
1.234146 -4.195915 -2.943665
0.604172 -2.448479 -2.741150
0.521118 -2.416199 -2.674744
1.084930 0.655586 -3.173401
0.203033 -7.929039 -1.826294
1.213943 0.309540 -2.990417
0.750900 -2.501366 -2.442078
0.750900 -2.501366 -2.442078
0.832657 -2.268433 -2.420227
0.799301 -1.884056 -2.392212
1.566635 -4.134239 -2.419067
1.235413 0.568512 -2.558350
1.774017 -4.084885 -2.129822
1.303452 0.210144 -2.166321
2.036896 -4.278671 -1.710083
0.923019 -7.848396 -0.688782
1.477722 -2.031189 -1.405212
2.277969 -4.098373 -1.394836
1.857437 -0.570480 -1.457214
2.233124 -4.263222 -1.305237
2.233124 -4.263222 -1.305237
2.263687 -4.050903 -1.316650
2.058228 -1.692787 -0.446533
2.697098 -4.190735 -0.588623
2.713760 -4.187523 -0.597534
2.084091 -1.950333 -0.390320
2.219986 -0.999329 -0.559570
2.157227 -1.531807 -0.386536
1693.487549 -281.350342 -1049.698853
2.269363 -1.854424 -0.193604
2.250275 -2.190735 -0.141724
2.301208 -1.739784 -0.199768
2.237473 -2.056274 -0.109985
2.247116 -2.440346 -0.007080
-1.858185 19.491867 0.535767
1.883987 -6.798447 0.724854
2.442322 -0.893936 -0.218018
2.382919 -1.594910 -0.010071
2.326904 -2.276810 0.098694
2.383865 -2.259583 0.107178
2.519043 -1.017082 -0.081726
2.519043 -1.017082 -0.081726
2.534134 -0.888489 -0.084473
2.421051 -2.207016 0.149658
2.565643 -1.046333 0.004272
2.555405 -1.915672 0.366272
2.582214 -1.995331 0.405029
2.697800 -1.756660 0.486633
3.200699 1.877930 0.023804
3.438522 2.496796 -0.127502
3.084473 -1.729645 1.143250
3.174591 -1.499474 1.179260
3.092392 -2.321495 1.327759
3.121185 -1.942665 1.274353
3.150757 -1.947342 1.311829
3.179550 -2.284203 1.437561
3.427475 0.449989 1.002930
8.104599 18.596497 -1.553345
8.116226 18.755600 -1.565125
8.316193 17.709000 -1.279968
8.193985 14.476151 -0.594055
8.224472 14.484344 -0.523499
8.400070 15.114693 -0.560547
8.329300 14.893524 -0.438110
6.783432 2.169052 2.573730
8.442337 15.454033 -0.267456
8.736786 19.879951 -0.729370
8.643585 16.787239 -0.142395
7.788559 -3.878685 3.235535
8.651001 16.025566 0.014099
8.651001 16.025566 0.014099
8.736008 16.906776 0.042969
8.083481 -4.026703 3.389587
8.814682 14.540451 0.527283
7.994812 13.725540 1.710632
8.378372 -3.961113 3.708435
9.311005 18.393486 0.250916
9.213257 17.010880 0.541504
9.106476 15.516624 0.877197
9.116714 15.527512 0.901062
9.250351 16.986801 0.617310
9.137100 17.046844 0.703857
9.144470 17.016235 0.752563
9.313416 15.196976 0.879639
9.156845 14.598892 1.126282
8.580505 -3.796288 4.122437
9.497864 19.758301 0.320557
9.436142 15.403160 1.093811
9.412735 16.534531 0.967529
8.559235 -4.003685 4.515991
9.297195 16.497025 1.119568
9.276474 15.657768 1.259766
9.351227 16.188843 1.265869
9.351227 16.188843 1.265869
8.807343 -3.675652 4.600220
8.701797 -3.839973 4.727966
9.476883 16.265442 1.482666
8.799042 -3.825661 4.910828
9.643402 16.256699 1.778687
9.737854 17.007057 1.794739
9.756271 16.142265 2.005798
9.876358 18.706375 1.547791
9.876358 18.706375 1.547791
9.889496 17.385284 1.921265
10.059250 17.338043 1.830811
7.786484 -0.468216 7.713562
7.423233 -0.698647 8.779358
-39.040962 30.699989 68.963257
-34.096840 31.260811 72.132812
-11.926666 15.674988 -25.151917
-36.517960 -30.152061 -28.477783
-9.424637 6.514496 -21.586060
-9.618637 5.373695 -21.520691
-7.341904 15.931000 -21.369263
-9.057236 7.905167 -21.363586
-9.272247 5.732399 -21.255981
-9.463699 5.131111 -21.265198
-9.119980 7.446304 -21.259766
-37.376434 -30.482803 -26.849792
-9.153519 8.542206 -21.182922
-9.082397 7.968460 -21.114807
-37.005714 -32.332443 -26.336304
-9.281982 6.064980 -20.938965
-36.802544 -32.354393 -25.936523
-37.955803 -30.188889 -26.191101
-37.611649 -30.396904 -26.081848
-37.521118 -30.622246 -26.029602
-37.536324 -30.483955 -26.037537
-7.598282 15.438408 -20.767700
-37.444809 -31.140785 -25.811523
-37.488373 -30.713356 -25.842163
-8.147049 15.006874 -20.495605
-8.485947 8.367249 -20.155762
-8.665054 8.242332 -20.184326
-38.583130 -25.458336 -25.662415
-8.637405 6.315132 -20.000366
-8.741577 8.037651 -20.133606
-38.694511 -25.436409 -25.631042
-8.185608 15.311562 -20.379333
-40.200401 -13.516197 -26.615784
-8.644150 6.856606 -19.912170
-40.411072 -15.100990 -26.448120
-7.282898 15.938522 -20.100586
-8.811066 7.991760 -19.973755
-8.137741 15.277802 -20.244873
-8.111603 14.518761 -20.183044
-8.198914 15.198936 -20.235962
-40.496635 -15.087868 -26.348755
-38.577301 -24.927177 -25.254272
-40.626625 -15.034798 -26.362610
-8.341385 5.808464 -19.655518
-8.152664 13.273544 -20.066650
-38.594124 -24.824394 -25.153931
-8.272461 12.616081 -19.998047
-38.711151 -24.752220 -25.142761
-7.420792 18.020958 -20.123535
-38.581451 -24.548065 -25.087769
-38.658424 -24.806389 -25.071716
-8.343857 13.837234 -20.048218
-8.253387 13.586449 -20.001770
-8.647858 12.417854 -19.983276
-7.681107 16.128365 -19.924561
-8.564285 8.531219 -19.543884
-8.470474 10.805489 -19.661804
-8.911545 8.081566 -19.449341
-8.738815 7.583656 -19.298279
-8.946609 6.588173 -19.193542
-8.314102 10.260368 -19.250427
-8.456192 6.021950 -18.917603
-9.104248 3.001007 -18.729187
-7.987045 12.430641 -19.090149
-9.309006 2.744484 -18.519714
-8.266006 6.507187 -18.142090
-9.179962 11.238060 -18.318970
-7.840256 6.679863 -17.728088
-7.769791 6.793381 -17.505371
-7.780869 6.861595 -17.390930
-7.780869 6.861595 -17.390930
-7.612778 6.621582 -17.302307
-7.801041 2.562782 -16.313354
-2.766754 6.915085 -14.625488
-2.766754 6.915085 -14.625488
-0.842545 13.703224 -14.008118
-2.435806 -5.375900 -12.190186
-0.464966 13.157379 -13.345947
-0.464966 13.157379 -13.345947
-0.390869 12.533287 -12.877563
-0.390869 12.533287 -12.877563
-3.808975 -8.397606 -10.830627
-3.706406 -8.865990 -10.536194
-3.314240 -9.037979 -10.363037
-1.748459 -3.995850 -10.442688
-1.994064 -2.880318 -10.465942
79.380753 8.041306 -6.661743
-0.774017 -5.163811 -9.851685
-0.900330 -1.163338 -10.200928
-1.082825 -1.088661 -10.187500
-1.398895 -1.619003 -10.135803
-1.363266 -1.803810 -10.087219
-1.178787 -2.268646 -10.022339
-1.246948 -2.124802 -10.005188
-1.182922 -2.374992 -9.959473
-0.487442 -5.303749 -9.574463
-0.487442 -5.303749 -9.574463
79.322739 7.247391 -7.068237
-0.468887 -5.107094 -9.369690
-0.468887 -5.107094 -9.369690
-0.210266 -5.607643 -9.273499
-2.446503 6.655457 -10.283569
-2.446503 6.655457 -10.283569
-1.784790 14.668999 -10.985229
-1.869049 13.230835 -10.794983
-2.087860 9.325668 -10.399353
-2.793335 2.720085 -9.706116
-1.859619 10.101357 -10.321411
-1.664139 14.668579 -10.686523
-2.862915 -1.322441 -9.105042
-2.459976 0.556023 -9.158203
-2.459976 0.556023 -9.158203
-2.672256 -2.127884 -8.861206
-1.360977 -5.387115 -8.512146
-1.488205 15.559532 -10.436035
-2.836060 -0.771027 -8.906738
-2.913162 -0.933167 -8.894409
-1.737564 15.289597 -10.359436
-1.600769 15.315170 -10.291016
-2.731964 -3.176338 -8.531067
-2.731964 -3.176338 -8.531067
-2.495590 -4.733711 -8.372192
-1.815186 12.899529 -9.974365
-2.225021 6.128387 -9.245483
-2.102890 6.497284 -9.241577
-2.151230 7.002007 -9.273193
-2.180283 8.745575 -9.408325
-2.286514 5.587646 -9.061279
-2.140091 6.891670 -9.151794
-1.172073 -5.858063 -7.894409
-2.222153 -1.376892 -8.282898
-2.919464 -3.658356 -8.071289
-2.697617 3.285347 -8.650635
-2.360458 -1.243950 -8.215576
-1.270630 17.205811 -9.965332
-2.701172 2.753059 -8.541687
-2.820038 0.511780 -8.196655
-2.925934 -0.128304 -8.115356
-2.927917 -0.779236 -8.046875
-3.206772 -3.664795 -7.748779
-3.071823 -3.411575 -7.767822
-3.123795 -3.632469 -7.708557
-3.123795 -3.632469 -7.708557
-2.597061 -1.322395 -7.908752
-2.820923 -1.017174 -7.943970
-2.698578 -1.158058 -7.923401
-3.053329 -3.363525 -7.668518
-3.104767 -3.631844 -7.643494
-1.364456 -4.697540 -7.499084
-2.915848 -0.455833 -7.885742
-2.563858 -0.138039 -7.596497
-2.563858 -0.138039 -7.596497
-2.218124 -4.514961 -7.122192
-1.668503 -4.834747 -7.054016
-2.431931 -1.549019 -7.123413
-2.587830 -3.203407 -6.855896
-2.274155 -2.202904 -6.653198
-1.529251 -5.283997 -6.367676
-2.232849 -2.234795 -6.576416
-2.073715 -3.025887 -6.196350
-6.241135 20.055923 -8.181274
-1.790833 -2.594917 -5.788269
-0.830368 -4.611092 -5.636047
-1.629013 -2.243996 -5.778137
-1.628342 -2.235512 -5.675781
-1.513336 -2.527298 -5.545654
-6.488312 17.846199 -7.297424
-6.472366 17.854897 -7.298401
-6.546860 17.640076 -7.259399
-6.546860 17.640076 -7.259399
-1.480499 -1.823135 -5.556213
-1.429733 -2.215172 -5.351807
-1.260635 -1.783714 -5.394958
-1.371536 -2.260765 -5.303101
-1.427551 -2.728264 -5.244263
-0.112732 -4.671021 -4.561951
-0.604050 -0.050995 -4.749451
-0.604050 -0.050995 -4.749451
0.240356 -4.388115 -4.030762
0.146530 -2.449783 -2.984741
0.226959 -2.356918 -2.901428
0.216766 -2.637329 -2.825317
0.848816 0.610947 -3.282837
0.881302 0.665245 -3.219177
0.939270 0.623108 -3.168213
0.405807 -2.807823 -2.676147
0.356293 -2.469223 -2.666809
0.621964 -1.343315 -2.636780
0.052536 -8.116898 -1.685791
0.985718 0.859619 -2.746094
0.902206 1.377235 -2.777588
0.036606 -8.013275 -1.535522
0.626175 -2.326790 -2.298218
0.626175 -2.326790 -2.298218
0.811874 -1.746429 -2.233948
0.971390 -0.225357 -2.236023
0.547806 -8.062614 -1.018494
2.060211 -4.662125 -1.488098
1.926346 -1.447655 -0.645386
2.021729 -2.162041 -0.314575
2.085342 -1.410034 -0.419312
2.132141 -2.240829 -0.108215
2.171906 -2.127808 -0.126953
2.162399 -2.202835 -0.078369
2.218201 -2.361977 0.042114
2.357254 -1.202911 -0.073547
2.357254 -1.202911 -0.073547
2.338882 -2.265701 0.192627
2.561111 -1.568893 0.294189
3.061218 -2.344093 1.337708
3.133545 -2.205658 1.374390
3.507111 0.916321 0.985596
4.704880 7.473640 0.376160
24.024033 11.758202 -5.808411
7.912582 -4.332779 2.688782
8.892685 14.478821 0.020691
9.068497 16.542282 -0.006531
9.113922 16.106667 0.138550
9.113922 16.106667 0.138550
9.113922 16.106667 0.138550
9.050125 -4.692429 3.742188
8.792404 -3.636986 4.143494
7.977997 -2.545456 4.379456
9.625824 15.202286 1.018799
9.066177 -4.176445 4.576233
8.990921 -3.459236 4.659119
10.006607 19.928864 0.709290
10.112869 14.650337 1.917480
10.124619 15.552139 1.786682
10.272354 18.597794 1.399719
10.275314 15.576500 2.023438
10.301437 14.049774 2.349121
10.062729 14.046936 2.488281
9.927536 -3.519234 5.764526
9.298172 14.265160 3.698059
10.691330 14.768600 2.873413
10.706940 14.736298 2.893860
8.295303 7.039513 5.737366
8.601456 13.688873 4.527588
8.601456 13.688873 4.527588
8.747742 16.216156 4.418396
8.270859 9.043694 6.023743
8.506226 8.555649 6.101807
8.489716 8.718445 6.294922
8.335434 9.186905 6.342285
8.414459 9.105537 6.422607
8.392334 9.096825 6.434265
8.818069 -3.060196 8.371338
8.453094 8.959938 6.494751
8.574966 11.884155 5.925232
8.546417 10.514191 6.254272
8.309998 9.694374 6.559875
8.688156 8.992516 6.749084
8.666840 9.235947 6.828918
8.898056 -2.964775 8.881775
8.855789 8.744499 6.889954
8.685181 9.144028 6.937378
8.985535 8.615555 6.905945
8.815460 9.099945 7.005005
8.821823 9.020691 7.086060
-86.262039 -22.210060 73.059143
-84.319771 -22.892319 73.660950
9.061813 9.057594 7.369263
8.994965 10.749374 7.136780
9.258057 8.702682 7.403015
9.223862 8.793198 7.419678
9.056656 9.198792 7.483215
9.056656 9.198792 7.483215
9.280731 8.645370 7.451111
-75.353752 -21.628517 70.512268
-75.469742 -21.191399 70.589050
-75.358315 -21.246391 70.730957
9.304123 9.285347 7.936707
-78.203896 -22.388000 74.800354
-74.574493 -21.243210 73.400146
-74.482964 -21.219185 75.350647
-74.482964 -21.219185 75.350647
9.870544 11.394539 8.368103
9.965652 9.174919 8.941345
-77.984703 -20.180847 79.568787
-77.968819 -21.287971 80.201904
9.977127 9.327477 9.070007
9.985107 9.318176 9.066833
10.029449 9.336082 9.197937
10.029449 9.336082 9.197937
10.214478 8.964882 9.173950
10.383514 8.747543 9.242371
10.389679 8.789185 9.292664
10.433868 8.750175 9.315613
10.573990 9.399651 10.131226
10.573990 9.399651 10.131226
10.673569 9.259613 10.144653
10.644531 9.403709 10.257812
10.698792 9.416588 10.377747
10.930695 8.784515 10.317139
10.914642 12.086365 9.973938
10.877869 10.916931 10.377625
10.933228 10.820786 10.445618
10.862015 11.082520 10.495178
10.956741 7.107742 11.371155
10.982635 13.205444 10.105896
11.020584 10.871887 10.564270
11.170898 12.308807 10.353943
11.243317 15.100967 9.933838
11.972702 8.733971 10.919800
11.690872 10.006226 11.006348
11.690872 10.006226 11.006348
11.794617 9.204391 11.163635
11.827087 9.272354 11.278809
12.018555 10.989372 10.939758
12.129196 8.910500 11.432678
12.081238 9.317413 11.461426
11.715683 6.992767 12.327026
12.207047 8.476364 11.565979
11.767029 7.130898 12.387573
11.782242 7.108505 12.403137
12.059296 11.659569 11.158569
12.185379 9.722595 11.481567
12.128021 10.331589 11.414062
12.338150 10.848007 11.283936
12.372482 8.226852 11.887573
12.302124 10.020287 11.610474
12.307022 10.434631 11.534546
11.674805 11.578316 12.308167
11.674805 11.578316 12.308167
12.239243 11.428589 11.479065
12.412018 10.057404 11.747864
-46.122841 -8.509827 71.795654
-45.862640 -7.681465 71.972961
-45.744347 -7.370682 71.941467
12.406189 11.488274 11.806396
